# .PCD v0.7
VERSION 0.7
FIELDS x y z
SIZE 4 4 4
TYPE F F F
COUNT 1 1 1
WIDTH 1820
HEIGHT 1
VIEWPOINT 0 0 0 0 0 0 1
POINTS 1820
DATA ascii
-15.9155 5.34391 -0.344422
-15.9229 5.33237 -0.101563
-15.9095 5.33625 0.141046
-15.9049 5.32499 0.384453
-15.8976 5.3198 0.628825
-15.9679 5.34234 -0.834482
-15.9621 5.33488 -0.589083
-15.9446 5.34442 -0.343942
-15.9509 5.33456 -0.100511
-15.9476 5.32358 0.143107
-15.9361 5.32222 0.386862
-15.9332 5.31049 0.632718
-16.0028 5.33497 -0.836205
-15.9924 5.33397 -0.589301
-15.9874 5.32536 -0.34443
-15.9846 5.32866 -0.0995088
-15.9812 5.31769 0.144947
-15.9697 5.31632 0.389537
-15.9611 5.31283 0.635239
-16.0446 5.318 -0.839239
-16.0239 5.33156 -0.589662
-16.0258 5.31308 -0.344579
-16.0252 5.3131 -0.0985628
-16.0127 5.31524 0.146679
-16.0079 5.30402 0.392734
-15.9935 5.30876 0.638558
-16.0866 5.30126 -0.842257
-16.0567 5.32767 -0.590164
-16.0632 5.30263 -0.344635
-16.0557 5.31246 -0.0975071
-16.0442 5.31293 0.148419
-16.0486 5.28866 0.396202
-16.0352 5.29179 0.643473
-16.1207 5.29607 -0.843727
-16.0965 5.31419 -0.591556
-16.0972 5.29727 -0.344439
-16.0873 5.31034 -0.0964539
-16.0873 5.29446 0.150762
-16.0756 5.29308 0.398134
-16.0701 5.28481 0.64721
-16.1491 5.29912 -0.844091
-16.1317 5.30741 -0.592337
-16.1221 5.30508 -0.343594
-16.1225 5.30348 -0.0954222
-16.1214 5.28925 0.152643
-16.1176 5.27647 0.401754
-16.1085 5.27314 0.651554
-16.1822 5.29586 -0.845324
-16.1706 5.29594 -0.593554
-16.1644 5.28866 -0.343937
-16.1543 5.30167 -0.094351
-16.1555 5.2842 0.154533
-16.1505 5.27306 0.404351
-16.1356 5.27785 0.653918
-16.22 5.28633 -0.847421
-16.2014 5.29597 -0.593718
-16.2022 5.27894 -0.343949
-16.2015 5.27896 -0.0933928
-16.192 5.27608 0.156553
-16.1882 5.26334 0.407477
-16.1766 5.2633 0.658684
-16.258 5.27699 -0.849506
-16.2334 5.29453 -0.594022
-16.2389 5.27102 -0.343871
-16.2429 5.26459 -0.0923724
-16.224 5.27461 0.158342
-16.2248 5.25543 0.410485
-16.2096 5.26025 0.662063
-16.2937 5.27104 -0.851143
-16.2714 5.28523 -0.595059
-16.2663 5.27617 -0.343153
-16.2774 5.2601 -0.0912861
-16.2619 5.26523 0.160445
-16.2638 5.24448 0.413765
-16.259 5.23485 0.668255
-16.3319 5.26208 -0.853205
-16.3095 5.27611 -0.596083
-16.3151 5.25255 -0.343837
-16.3084 5.2606 -0.0901648
-16.3037 5.24887 0.162745
-16.2864 5.25622 0.415223
-16.2852 5.2418 0.670454
-16.363 5.26286 -0.853954
-16.3477 5.2672 -0.597096
-16.3474 5.2516 -0.343413
-16.3418 5.25805 -0.0890517
-16.3393 5.24546 0.164748
-16.328 5.24242 0.418787
-16.3184 5.23926 0.673863
-16.4073 5.24634 -0.857077
-16.3909 5.2521 -0.598686
-16.3918 5.23485 -0.343755
-16.3755 5.25329 -0.0879976
-16.3719 5.23994 0.166579
-16.3712 5.22487 0.422567
-16.3471 5.24091 0.676618
-16.4424 5.24035 -0.858733
-16.4247 5.24759 -0.599295
-16.4256 5.2303 -0.343526
-16.4211 5.23511 -0.0869399
-16.4079 5.23451 0.168603
-16.4179 5.20513 0.426686
-16.3972 5.2164 0.682866
-16.481 5.23216 -0.860749
-16.4693 5.23134 -0.601005
-16.4533 5.23622 -0.342765
-16.468 5.21796 -0.0858048
-16.452 5.22286 0.171074
-16.4441 5.21505 0.428501
-16.4389 5.20565 0.687579
-16.5123 5.23596 -0.861181
-16.5042 5.23033 -0.601322
-16.4954 5.22562 -0.342778
-16.4981 5.2209 -0.0846277
-16.4944 5.20753 0.173438
-16.4802 5.21002 0.431453
-16.487 5.18484 0.693458
-16.556 5.22187 -0.864037
-16.5418 5.22398 -0.602129
-16.5379 5.21288 -0.342916
-16.5369 5.21291 -0.083488
-16.5283 5.20586 0.175371
-16.531 5.1862 0.436013
-16.5086 5.19903 0.694897
-16.6047 5.20175 -0.867738
-16.577 5.22096 -0.602634
-16.5916 5.18618 -0.343723
-16.577 5.20354 -0.0823424
-16.5622 5.20436 0.177313
-16.5759 5.17055 0.439924
-16.5594 5.17551 0.701208
-16.645 5.19281 -0.86992
-16.6209 5.20715 -0.604145
-16.6294 5.18021 -0.343528
-16.6384 5.16526 -0.0813498
-16.6038 5.19121 0.17965
-16.6187 5.15591 0.443654
-16.6032 5.15932 0.706459
-16.6522 5.22374 -0.866578
-16.6404 5.22246 -0.602952
-16.644 5.20184 -0.34203
-16.6404 5.20502 -0.0800068
-16.6304 5.19948 0.181226
-16.6232 5.1925 0.443171
-16.6298 5.16766 0.708734
-16.6541 5.26322 -0.862108
-16.6497 5.25267 -0.600393
-16.6433 5.24463 -0.339497
-16.6384 5.24941 -0.0786568
-16.6407 5.2306 0.181965
-16.6386 5.21497 0.443891
-16.6281 5.21203 0.706325
-16.662 5.29491 -0.858715
-16.6613 5.27976 -0.598127
-16.6512 5.27643 -0.337495
-16.65 5.27655 -0.0773689
-16.651 5.25934 0.182701
-16.6428 5.25152 0.443398
-16.6336 5.24697 0.705131
-16.6659 5.3312 -0.854686
-16.6577 5.32546 -0.594137
-16.6576 5.30977 -0.335424
-16.6506 5.31297 -0.0761784
-16.6429 5.30669 0.182459
-16.6485 5.28174 0.443178
-16.638 5.2787 0.70401
-16.6727 5.35968 -0.851641
-16.662 5.35708 -0.591432
-16.6644 5.33837 -0.333631
-16.6681 5.33233 -0.074919
-16.6504 5.33848 0.183053
-16.6586 5.31045 0.443349
-16.6519 5.30273 0.704238
-16.6814 5.38977 -0.848476
-16.6744 5.38259 -0.589323
-16.673 5.36857 -0.331717
-16.6673 5.37814 -0.0734748
-16.6596 5.37187 0.183766
-16.6642 5.34854 0.442963
-16.6563 5.34232 0.702743
-16.6868 5.4276 -0.844341
-16.6861 5.41282 -0.586806
-16.6771 5.4081 -0.329317
-16.6694 5.41606 -0.0721797
-16.6693 5.40054 0.184483
-16.6689 5.3834 0.44258
-16.6623 5.37561 0.701731
-16.6964 5.45612 -0.841398
-16.6957 5.44142 -0.584418
-16.6854 5.43827 -0.327414
-16.673 5.44767 -0.0710256
-16.6807 5.42295 0.185271
-16.6739 5.41352 0.44234
-16.6687 5.40416 0.701001
-16.6988 5.4891 -0.837736
-16.6968 5.47602 -0.581446
-16.6929 5.46525 -0.325712
-16.685 5.47322 -0.0697664
-16.685 5.45776 0.185713
-16.6898 5.43451 0.443176
-16.6731 5.43893 0.699773
-16.7106 5.51457 -0.835224
-16.6996 5.51221 -0.578357
-16.6983 5.49845 -0.323673
-16.699 5.49807 -0.0684499
-16.6875 5.49641 0.186075
-16.7026 5.46096 0.443663
-16.6808 5.47143 0.699013
-16.7169 5.54844 -0.831598
-16.7097 5.54157 -0.575921
-16.6954 5.54311 -0.321075
-16.7029 5.5328 -0.0671831
-16.694 5.52808 0.186639
-16.6925 5.51252 0.441749
-16.6951 5.49396 0.699428
-16.7104 5.59503 -0.826143
-16.7213 5.56708 -0.573834
-16.7109 5.56406 -0.319622
-16.7057 5.56667 -0.0659847
-16.7019 5.55586 0.187272
-16.6979 5.54336 0.44155
-16.6954 5.53086 0.697707
-16.7182 5.62264 -0.823286
-16.7239 5.60085 -0.570965
-16.7148 5.59635 -0.317662
-16.7092 5.60132 -0.064731
-16.7081 5.5875 0.187826
-16.7093 5.56893 0.441961
-16.6991 5.56551 0.696456
-16.7321 5.64507 -0.821211
-16.7248 5.6384 -0.56776
-16.7248 5.62339 -0.315929
-16.7191 5.62836 -0.0634888
-16.7128 5.62062 0.188306
-16.7193 5.59602 0.44223
-16.7066 5.59559 0.695821
-16.7367 5.67799 -0.81767
-16.732 5.66839 -0.565264
-16.7412 5.6429 -0.314553
-16.7262 5.65843 -0.0622486
-16.716 5.65521 0.18871
-16.7252 5.62764 0.44208
-16.7151 5.62415 0.695391
-16.749 5.70194 -0.81539
-16.739 5.69836 -0.562773
-16.7351 5.68798 -0.311983
-16.7293 5.69298 -0.061012
-16.7234 5.68293 0.189325
-16.7231 5.66825 0.44109
-16.7248 5.6512 0.695165
-16.7546 5.73333 -0.812068
-16.7485 5.72533 -0.560565
-16.7486 5.7105 -0.310472
-16.7321 5.72749 -0.0597821
-16.7351 5.70928 0.190198
-16.734 5.6938 0.441485
-16.7318 5.68125 0.694518
-16.7548 5.77063 -0.807916
-16.7566 5.75379 -0.558221
-16.7527 5.74349 -0.308475
-16.7365 5.75814 -0.0586194
-16.7453 5.73168 0.190954
-16.7438 5.71852 0.441815
-16.7272 5.72237 0.69213
-16.7671 5.79226 -0.805916
-16.7583 5.78734 -0.555387
-16.761 5.76967 -0.306823
-16.7497 5.78066 -0.0573965
-16.7465 5.76766 0.191268
-16.7531 5.74558 0.442065
-16.7457 5.73897 0.693358
-16.7964 5.79709 -0.806353
-16.7781 5.80246 -0.554299
-16.7835 5.78185 -0.305801
-16.7815 5.78242 -0.0561604
-16.7659 5.78511 0.192556
-16.7742 5.75927 0.443575
-16.7549 5.766 0.693117
-16.8431 5.78298 -0.809482
-16.8262 5.7867 -0.55611
-16.8209 5.77786 -0.305529
-16.8242 5.77252 -0.0549049
-16.8116 5.76987 0.195216
-16.8101 5.75678 0.446637
-16.8025 5.7502 0.698971
-16.8845 5.77498 -0.811765
-16.869 5.77709 -0.557353
-16.8583 5.77407 -0.305246
-16.8589 5.77169 -0.0536458
-16.8543 5.76015 0.197738
-16.85 5.75004 0.450132
-16.8437 5.74203 0.703788
-16.9261 5.76721 -0.814036
-16.9133 5.76625 -0.55872
-16.9039 5.76165 -0.305358
-16.9018 5.76222 -0.0523646
-16.8944 5.75361 0.200132
-16.8995 5.73323 0.45463
-16.8783 5.74142 0.707563
-16.9692 5.75821 -0.8165
-16.9414 5.77317 -0.558427
-16.9456 5.75389 -0.305253
-16.9475 5.75006 -0.0510646
-16.9319 5.75022 0.202393
-16.9383 5.72843 0.458011
-16.9237 5.72929 0.713039
-17.011 5.75089 -0.818744
-16.9886 5.75985 -0.560042
-16.9928 5.74051 -0.305403
-16.9989 5.73231 -0.0497383
-16.9763 5.73972 0.205028
-16.9881 5.71214 0.462541
-16.9746 5.71158 0.719376
-17.0332 5.74969 -0.561369
-17.0238 5.74486 -0.304735
-17.0243 5.74251 -0.048453
-17.0163 5.73616 0.207449
-17.0149 5.72089 0.464666
-17.0095 5.7116 0.723187
-16.9631 5.87508 -0.803457
-17.0491 5.77014 -0.559823
-17.041 5.76385 -0.303397
-17.0278 5.77603 -0.0472183
-17.0765 5.7934 -0.816367
-17.0732 5.78198 -0.559092
-17.0554 5.78578 -0.301925
-17.0559 5.78349 -0.0459213
-17.063 5.76122 0.21051
-17.0506 5.75756 0.46707
-17.0438 5.74972 0.72531
-17.1254 5.77963 -0.819597
-17.1056 5.78532 -0.559168
-17.1155 5.76023 -0.302622
-17.102 5.77234 -0.0445639
-17.1092 5.7501 0.213265
-17.0966 5.74643 0.471217
-17.0815 5.74728 0.729567
-17.1662 5.77469 -0.821584
-17.1491 5.77737 -0.560317
-17.1604 5.75082 -0.302579
-17.149 5.74409 0.215674
-17.1432 5.73322 0.475458
-17.121 5.74127 0.734198
-17.2159 5.75912 -0.825053
-17.1932 5.76733 -0.561651
-17.1963 5.74934 -0.302195
-17.2092 5.73417 -0.0418151
-17.1992 5.71258 0.480644
-17.1837 5.71349 0.742325
-17.0108 6.00372 -0.791133
-17.2706 5.72574 -0.565997
-17.2611 5.72043 -0.30303
-17.2217 5.76043 -0.0404729
-17.2988 5.66691 0.224321
-17.2996 5.64895 0.490398
-17.2836 5.64997 0.756106
-17.0548 5.99666 -0.793486
-17.3268 5.70821 -0.568101
-17.3552 5.66442 -0.305061
-17.3387 5.67916 -0.0387816
-17.3597 5.64278 0.227903
-17.3576 5.62771 0.495781
-17.3302 5.64012 0.761716
-17.0359 6.05081 -0.786949
-17.3202 5.75219 -0.564372
-17.3967 5.66047 -0.304752
-17.4159 5.63738 -0.0372725
-17.4001 5.63791 0.230381
-17.4008 5.62003 0.499665
-17.3928 5.61261 0.769851
-17.0046 6.11509 -0.778868
-17.3945 5.71355 -0.568451
-17.4005 5.69248 -0.302843
-17.4716 5.6196 -0.035766
-17.4416 5.6342 0.232939
-17.4704 5.58811 0.50625
-17.4369 5.60615 0.775066
-16.9937 6.16043 -0.773582
-17.4761 5.65509 -0.304038
-17.5134 5.61621 -0.0343057
-17.5059 5.60819 0.23673
-17.512 5.58476 0.509943
-17.4896 5.59151 0.781587
-16.9739 6.21398 -0.767096
-17.5492 5.62096 -0.305077
-17.5523 5.61585 -0.0328468
-17.5648 5.58817 0.240238
-17.5424 5.59285 0.512478
-17.5368 5.58277 0.787262
-16.9767 6.24516 -0.763855
-17.2675 5.94834 -0.547515
-17.408 5.79671 -0.2967
-19.7923 3.46682 -0.0201703
-17.661 5.53215 0.24577
-19.5337 3.67505 0.717112
-17.5615 5.59661 0.789495
-16.9735 6.28183 -0.759815
-17.3055 5.94729 -0.548068
-19.1806 4.11548 -0.371422
-19.8044 3.50798 -0.0183319
-19.1532 4.11977 0.326708
-19.7421 3.52318 0.737784
-16.9903 6.29915 -0.758598
-17.2515 6.03488 -0.540191
-19.1746 4.16966 -0.368363
-19.2295 4.08952 0.33124
-19.7555 3.56004 0.738412
-17.0034 6.31841 -0.757039
-17.3202 6.0027 -0.543696
-19.2481 4.14509 -0.36885
-19.3214 4.05245 0.336689
-16.9882 6.36589 -0.751412
-17.2858 6.07065 -0.537688
-19.3186 4.12635 -0.36904
-19.3428 4.08083 0.33832
-16.9939 6.39502 -0.748539
-19.2481 4.24367 -0.363156
-19.3468 4.12575 0.339006
-16.9783 6.44224 -0.742936
-17.3216 6.10851 -0.535052
-19.2675 4.27306 -0.361215
-19.336 4.18429 0.338893
-17.0069 6.44655 -0.743587
-19.3003 4.28763 -0.359964
-17.0143 6.47207 -0.741185
-17.3554 6.14475 -0.532539
-19.5972 4.06088 -0.36932
-17.0069 6.51099 -0.7368
-19.4507 4.24411 -0.360595
-17.0288 6.52308 -0.736391
-19.411 4.32799 -0.356263
-17.0203 6.56102 -0.73208
-19.4215 4.36329 -0.354104
-17.048 6.5679 -0.732461
-19.9283 3.95506 -0.371303
-17.0519 6.59605 -0.72968
-19.6995 4.20894 -0.359545
-17.0527 6.6268 -0.726509
-19.7818 4.18412 -0.35996
-19.8752 4.06054 0.742325
-17.0519 6.66187 -0.722832
-19.8786 4.10662 0.742074
-17.0703 6.67686 -0.722029
-19.9423 4.09459 0.748022
-17.0661 6.70835 -0.718601
-17.0784 6.72858 -0.717016
-17.0846 6.75401 -0.714651
-19.6267 4.53346 0.361369
-19.8664 4.30577 0.738649
-17.0754 6.79226 -0.710342
-19.6718 4.54335 0.36443
-19.9122 4.31657 0.742746
-17.1247 6.78271 -0.713371
-19.696 4.56889 0.366315
-19.8139 4.44747 0.73228
-17.1 6.83365 -0.70713
-19.7599 4.56113 0.370407
-19.8354 4.47612 0.733957
-17.1241 6.84381 -0.707103
-19.9207 4.47313 0.379884
-19.9974 4.38715 0.749873
-17.1143 6.88186 -0.702819
-19.8574 4.57218 0.376941
-20.1279 4.32599 0.762598
-17.1259 6.90219 -0.701247
-19.897 4.58571 0.379713
-17.1839 6.885 -0.705453
-19.925 4.60425 0.381793
-17.2103 6.89218 -0.705854
-17.36 6.75908 -0.48338
-17.2343 6.90289 -0.705805
-17.2504 6.8775 -0.472355
-17.2492 6.86596 -0.237337
-17.2523 6.86004 -0.00195074
-17.2578 6.84157 0.234003
-17.2466 6.83793 0.470096
-17.2507 6.82196 0.709262
-17.2388 6.92762 -0.703512
-17.2659 6.89366 -0.471329
-17.2459 6.89707 -0.235613
-17.245 6.89585 -0.000986081
-17.2475 6.87993 0.23382
-17.2426 6.87128 0.469424
-17.2437 6.85781 0.707307
-17.3003 6.90896 -0.708046
-17.2978 6.89842 -0.471458
-17.2856 6.89554 -0.235238
-17.327 6.86082 0.000989582
-17.3129 6.85947 0.237892
-17.2821 6.86978 0.473148
-17.2707 6.86628 0.710329
-17.3526 6.89802 -0.711412
-17.3281 6.90459 -0.471457
-17.3474 6.87695 -0.235574
-17.3307 6.88809 0.00208382
-17.3252 6.87836 0.238963
-17.3249 6.86602 0.477199
-17.3148 6.8613 0.715855
-17.3956 6.89472 -0.713618
-17.3979 6.88029 -0.474471
-17.3431 6.91037 -0.233735
-17.3562 6.90121 0.00353805
-17.3333 6.90502 0.239863
-17.3377 6.88901 0.478226
-17.3323 6.88058 0.717424
-17.4085 6.91782 -0.711885
-17.4314 6.88759 -0.474443
-17.3593 6.8895 0.720468
-17.3978 6.95599 -0.707619
-17.465 6.89197 -0.474649
-17.4409 6.86601 0.488163
-17.4037 6.88204 0.726132
-17.4552 6.93923 -0.71182
-17.5211 6.84751 0.251626
-17.4713 6.87293 0.490993
-17.4729 6.95583 -0.710963
-17.5814 6.84647 0.0104383
-17.5492 6.85812 0.253661
-17.481 6.97967 -0.708971
-17.6408 6.83231 0.012274
-17.4442 7.03672 -0.701709
-17.6472 6.86039 -0.233081
-17.4663 7.04978 -0.701423
-17.5361 6.98584 -0.46856
-17.6908 6.85867 -0.232685
-17.4258 7.10879 -0.693817
-17.7474 6.84773 -0.232663
-17.4823 7.09823 -0.697408
-17.4543 7.14759 -0.691324
-17.5095 7.13551 -0.695018
-17.5005 7.17085 -0.691184
-17.4947 7.20377 -0.687732
-17.5083 7.22291 -0.686514
-17.5218 7.2421 -0.685295
-17.5352 7.26134 -0.684076
-17.5282 7.29315 -0.680704
-17.5151 7.33031 -0.676544
-17.558 7.32949 -0.678639
-17.5612 7.35549 -0.676322
-17.5417 7.39787 -0.671387
-17.5313 7.43251 -0.667623
-17.5441 7.45178 -0.666419
-17.5802 7.45592 -0.66776
-17.6026 7.4296 -0.436112
-17.542 7.50674 -0.661166
-17.6147 7.44816 -0.434958
-17.5579 7.5239 -0.660329
-17.6274 7.46774 -0.433742
-17.571 7.54423 -0.659069
-17.6238 7.53818 -0.662198
-17.6532 7.50801 -0.431248
-17.5883 7.58634 -0.656008
-17.6651 7.52674 -0.430092
-17.587 7.6142 -0.653371
-17.5689 7.61399 -0.421828
-17.606 7.62949 -0.652891
-17.5674 7.6418 -0.419756
-17.5976 7.66147 -0.649545
-17.6169 7.63827 -0.420971
-17.6096 7.68097 -0.648351
-17.6016 7.67445 -0.418027
-17.6352 7.69231 -0.648582
-17.6409 7.67749 -0.418572
-17.6231 7.72621 -0.644894
-17.6356 7.70741 -0.416289
-17.6451 7.73972 -0.644767
-17.6268 7.73929 -0.413798
-17.6419 7.76548 -0.642274
-17.6098 7.77316 -0.411003
-17.657 7.78313 -0.641435
-17.6213 7.79272 -0.409817
-17.6248 7.83071 -0.635536
-17.6478 7.80628 -0.409366
-17.6293 7.85426 -0.633648
-17.6523 7.82996 -0.407751
-17.6533 7.86403 -0.63399
-17.6347 7.86353 -0.404983
-20.7335 6.05913 0.460573
-17.6091 7.91504 -0.627193
-17.6738 7.86744 -0.405493
-20.7743 6.07429 0.463765
-17.4828 8.01139 -0.612194
-17.5213 7.9791 -0.394395
-17.5131 7.973 -0.172999
-17.5123 7.97157 0.0483062
-17.5168 7.95834 0.270011
-17.526 7.94104 0.493722
-17.5149 7.9364 0.717098
-17.4953 8.02953 -0.611223
-17.492 8.02069 -0.390824
-17.4942 8.00882 -0.171245
-17.4777 8.01619 0.0485619
-17.4713 8.00794 0.267773
-17.4777 7.99362 0.488971
-17.4756 7.98404 0.711203
-17.4683 7.97729 0.934605
-17.5094 8.04675 -0.610426
-17.4922 8.04563 -0.38905
-17.4944 8.03382 -0.169887
-17.4814 8.03921 0.0495662
-17.4749 8.03096 0.268498
-17.4884 8.0128 0.490117
-17.4793 8.00712 0.711375
-17.4565 8.00906 0.931687
-17.6075 8.01824 -0.617976
-17.5711 8.02738 -0.391976
-17.5681 8.01833 -0.169989
-17.6181 7.98901 0.0532467
-17.5699 8.00477 0.274736
-17.5652 7.99534 0.497895
-17.5367 8.00029 0.719105
-17.6183 8.03777 -0.616811
-17.6291 8.02108 -0.393625
-17.613 8.01726 0.0540948
-17.6291 7.99643 0.278786
-17.6038 7.99948 0.501853
-17.5925 7.99478 0.72661
-17.6394 8.05169 -0.616686
-17.631 8.04545 -0.39194
-17.6914 8.00211 -0.169639
-17.6412 8.02736 0.0556198
-17.6398 8.01612 0.279955
-17.6669 7.99051 0.508275
-17.6395 8.07696 -0.614483
-17.6628 8.05379 -0.392013
-20.7385 6.37361 0.467317
-17.6782 8.08173 -0.616078
-17.6451 8.0885 -0.389197
-20.8287 6.36467 0.473594
-17.6605 8.11629 -0.612154
-17.6697 8.10075 -0.388853
-20.5858 6.55362 -0.219183
-17.6815 8.1305 -0.612021
-17.6872 8.11684 -0.388095
-20.5307 6.62062 -0.216118
-17.6847 8.15394 -0.610169
-17.6656 8.15316 -0.385094
-20.445 6.70282 -0.212536
-20.9224 6.43596 0.481842
-17.6843 8.17918 -0.607978
-17.6758 8.17292 -0.383933
-20.4887 6.71767 -0.211311
-17.7064 8.19169 -0.608069
-17.6783 8.19533 -0.382425
-20.5726 6.71041 -0.210883
-17.7023 8.21872 -0.605542
-17.7062 8.20616 -0.382272
-20.4736 6.79802 -0.207147
-17.6909 8.24922 -0.602341
-17.6877 8.24032 -0.379503
-20.5815 6.78103 -0.207012
-17.6865 8.2761 -0.599827
-17.7012 8.25839 -0.378545
-20.3994 6.90877 -0.201934
-17.7143 8.28716 -0.600365
-17.711 8.27827 -0.377387
-20.3493 6.96987 -0.19915
-17.7133 8.31228 -0.598194
-17.71 8.30342 -0.375634
-20.4427 6.96043 -0.198757
-17.7338 8.32701 -0.59805
-17.7161 8.32507 -0.374281
-20.421 7.0073 -0.196464
-17.7038 8.36581 -0.593194
-17.7402 8.33812 -0.373915
-20.6372 6.93992 -0.19799
-17.7169 8.38398 -0.59238
-17.7353 8.36497 -0.371972
-20.6443 6.97349 -0.196134
-17.7444 8.39547 -0.592905
-17.7303 8.39175 -0.370036
-20.655 7.00536 -0.194338
-17.7792 8.40377 -0.594091
-17.7034 8.42856 -0.366936
-20.5985 7.06852 -0.191517
-17.7559 8.43885 -0.589933
-17.7309 8.4401 -0.366763
-20.5961 7.10607 -0.189547
-17.7108 8.48363 -0.583793
-17.7364 8.46174 -0.365423
-20.599 7.14107 -0.187664
-17.7453 8.49208 -0.584976
-17.7383 8.48504 -0.363892
-20.6218 7.16694 -0.186079
-17.743 8.51596 -0.582896
-17.7396 8.50731 -0.362421
-17.7301 8.54564 -0.579771
-17.7486 8.52733 -0.361279
-20.7268 7.19066 -0.183842
-20.9491 7.08901 0.15558
-17.7427 8.564 -0.578963
-17.7538 8.54898 -0.359947
-20.7367 7.22273 -0.182056
-20.9538 7.1243 0.157136
-17.7442 8.58718 -0.577168
-17.7737 8.56426 -0.359376
-20.9858 7.14756 0.159359
-17.7529 8.60719 -0.576032
-17.7604 8.59389 -0.357098
-21.027 7.16703 0.161814
-17.7726 8.62255 -0.575879
-17.7544 8.62026 -0.355207
-17.7775 8.64421 -0.574415
-17.7409 8.64966 -0.352947
-21.1202 7.20198 0.167028
-17.7787 8.66741 -0.572627
-17.7789 8.65733 -0.353312
-21.1668 7.21987 0.169654
-17.7687 8.69515 -0.569865
-17.78 8.68055 -0.351805
-21.1986 7.2442 0.17192
-17.7734 8.71676 -0.56841
-17.7847 8.70222 -0.350486
-21.1872 7.28464 0.173026
-17.785 8.73437 -0.567662
-17.7666 8.73192 -0.348117
-21.1837 7.32353 0.1744
-17.7858 8.75749 -0.565886
-17.7637 8.75651 -0.346438
-17.8013 8.7747 -0.565404
-17.7792 8.77365 -0.345681
-17.802 8.79783 -0.563632
-17.7836 8.79527 -0.344373
-17.7988 8.82238 -0.561542
-17.799 8.81253 -0.343614
-17.803 8.84402 -0.560098
-17.7845 8.8414 -0.341402
-17.8221 8.85997 -0.559935
-17.7812 8.86586 -0.339741
-17.8261 8.88166 -0.558492
-17.8038 8.88035 -0.339343
-17.7969 8.87333 -0.122464
-19.9537 8.03758 0.449736
-17.8207 8.90684 -0.556255
-17.8115 8.90059 -0.338223
-19.638 8.2015 0.144674
-19.9007 8.08941 0.447201
-17.8134 8.93264 -0.553865
-17.8229 8.91947 -0.337283
-19.5824 8.25261 0.14438
-19.8774 8.12963 0.446561
-17.8247 8.95152 -0.553065
-17.8267 8.94115 -0.335986
-19.8688 8.1641 0.446872
-17.8321 8.97182 -0.551949
-17.8116 8.96965 -0.333807
-19.8773 8.18748 0.448157
-17.8463 8.98742 -0.551576
-17.8408 8.97978 -0.333863
-19.759 8.27586 0.152673
-19.8803 8.21912 0.449259
-17.8424 9.01178 -0.549515
-17.833 9.0055 -0.332045
-17.875 8.98099 -0.116196
-19.7235 8.31911 0.152913
-19.8896 8.24529 0.450692
-17.8383 9.03608 -0.547459
-17.8516 9.02186 -0.331456
-19.7406 8.34342 0.154596
-19.7564 8.32365 0.442937
-17.8662 9.04925 -0.548071
-17.8493 9.04555 -0.329907
-19.7576 8.36782 0.156282
-19.9133 8.30056 0.454026
-17.5295 9.17828 -0.313797
-17.5129 9.17507 -0.109389
-17.4597 9.19205 0.0931505
-17.4973 9.16906 0.297818
-17.5094 9.15583 0.503799
-17.4398 9.17116 0.700857
-17.7231 9.0623 0.957437
-17.4781 9.22618 -0.512624
-17.4419 9.2208 -0.107661
-17.389 9.22877 0.291414
-17.4298 9.20593 0.496045
-17.3909 9.20046 0.89833
-17.4546 9.25632 -0.509046
-17.4749 9.24072 -0.308552
-17.4619 9.23627 -0.106692
-17.454 9.23757 0.0947391
-17.4124 9.24185 0.293547
-17.4663 9.21466 0.500161
-17.4699 9.20447 0.705339
-17.4066 9.21616 0.901011
-17.4648 9.27408 -0.508326
-17.468 9.26422 -0.306918
-17.4607 9.25787 -0.105595
-17.4604 9.25663 0.0957712
-17.4547 9.24871 0.296922
-17.4784 9.23189 0.501777
-17.435 9.23763 0.700602
-17.4502 9.2224 0.908666
-17.4749 9.29188 -0.507605
-17.4516 9.29076 -0.304863
-17.4633 9.27818 -0.104532
-17.4553 9.27946 0.0964763
-17.4363 9.27596 0.29634
-17.4677 9.25673 0.501071
-17.445 9.25541 0.702156
-17.4266 9.25158 0.90439
-17.4888 9.30851 -0.507193
-17.4673 9.30669 -0.30426
-17.4714 9.29663 -0.103518
-17.4593 9.29819 0.0973988
-17.4501 9.29248 0.297864
-17.4699 9.27616 0.501664
-17.4509 9.27354 0.703134
-17.4381 9.26779 0.906362
-17.4852 9.3297 -0.505442
-17.477 9.32358 -0.303453
-17.4659 9.31845 -0.102451
-17.4731 9.31481 0.0986465
-17.4601 9.31031 0.29914
-17.4647 9.299 0.50153
-17.4646 9.29017 0.705216
-17.4445 9.28782 0.90744
-17.4799 9.35241 -0.50349
-17.4831 9.34268 -0.302425
-17.4606 9.34117 -0.101337
-17.4655 9.33722 0.0992356
-17.4715 9.32662 0.30049
-17.4704 9.31717 0.502507
-17.4666 9.30958 0.705666
-17.4462 9.30622 0.907697
-17.4952 9.36758 -0.503283
-17.4908 9.36025 -0.301533
-17.4777 9.35568 -0.100449
-17.4658 9.35812 0.100093
-17.4737 9.34696 0.301266
-17.4803 9.33511 0.503924
-17.4557 9.33416 0.704316
-17.46 9.32386 0.910106
-17.4936 9.38907 -0.501643
-17.4815 9.38412 -0.299838
-17.4875 9.37361 -0.0994512
-17.468 9.3784 0.101004
-17.4645 9.37087 0.301285
-17.4862 9.35429 0.504952
-17.4654 9.35208 0.705869
-17.4657 9.34205 0.91108
-17.5052 9.40648 -0.501077
-17.4932 9.40149 -0.299064
-17.4896 9.39394 -0.0983991
-17.4853 9.39399 0.102365
-17.4665 9.39115 0.302055
-17.494 9.37291 0.506174
-17.4712 9.37123 0.706892
-17.4643 9.36454 0.910821
-17.5073 9.4268 -0.499746
-17.4952 9.4218 -0.297874
-17.4802 9.41774 -0.0972708
-17.4835 9.41547 0.103161
-17.4838 9.40678 0.303834
-17.4903 9.39506 0.506221
-17.4846 9.38807 0.708977
-17.4661 9.38391 0.911123
-17.4997 9.44995 -0.497658
-17.5048 9.43982 -0.297017
-17.4974 9.43343 -0.0963267
-17.4873 9.4352 0.104125
-17.4895 9.42595 0.304856
-17.4942 9.41485 0.507048
-17.4866 9.40844 0.709469
-17.4683 9.40519 0.911526
-17.5054 9.46911 -0.496638
-17.5144 9.45789 -0.296159
-17.5051 9.45205 -0.0953174
-17.4891 9.45551 0.10503
-17.4952 9.44515 0.305877
-17.496 9.43522 0.507678
-17.4846 9.42994 0.709427
-17.4774 9.42227 0.913165
-17.5187 9.48608 -0.496223
-17.5047 9.48158 -0.294483
-17.5011 9.47407 -0.0942363
-17.5005 9.47301 0.106222
-17.4855 9.46886 0.305877
-17.5036 9.4539 0.508896
-17.4883 9.44972 0.71018
-17.4906 9.43922 0.915525
-17.5282 9.50422 -0.495505
-17.5103 9.50077 -0.293464
-17.5067 9.49327 -0.0932176
-17.5025 9.49429 0.107175
-17.4913 9.48901 0.306944
-17.5113 9.47357 0.510165
-17.4979 9.46879 0.711784
-17.4796 9.46541 0.913626
-17.5282 9.52606 -0.493982
-17.5122 9.52203 -0.292234
-17.5048 9.51564 -0.092104
-17.5156 9.51133 0.108426
-17.4967 9.50821 0.30796
-17.5129 9.49395 0.51079
-17.5072 9.48696 0.713336
-17.4889 9.48353 0.915314
-17.5164 9.55011 -0.491611
-17.5253 9.53911 -0.29154
-17.5121 9.53431 -0.0910993
-17.5018 9.536 0.108854
-17.5002 9.52797 0.308846
-17.5126 9.51488 0.511214
-17.5126 9.50625 0.714355
-17.4999 9.50114 0.917339
-17.5275 9.56776 -0.491046
-17.5268 9.55944 -0.290363
-17.5194 9.55302 -0.0900948
-17.511 9.55415 0.109986
-17.5074 9.54667 0.309989
-17.5256 9.53203 0.513025
-17.5027 9.52986 0.71323
-17.4996 9.52204 0.917345
-17.5367 9.58598 -0.490331
-17.5244 9.5808 -0.289028
-17.5401 9.56807 -0.0891618
-17.516 9.57244 0.110948
-17.5102 9.56453 0.310772
-17.5229 9.55252 0.513196
-17.5077 9.54817 0.714193
-17.5119 9.53727 0.919606
-17.5455 9.60328 -0.489666
-17.5333 9.59807 -0.288225
-17.5374 9.58852 -0.0881567
-17.5327 9.58859 0.112321
-17.5099 9.58633 0.311445
-17.5397 9.56871 0.515406
-17.5224 9.56485 0.716549
-17.5097 9.55966 0.919321
-17.5468 9.62361 -0.488354
-17.5326 9.6189 -0.286974
-17.5194 9.61401 -0.0870284
-17.5338 9.60798 0.113163
-17.5145 9.60367 0.312354
-17.5215 9.59334 0.513978
-17.5254 9.58374 0.717243
-17.4994 9.58216 0.917581
-17.5382 9.64546 -0.486352
-17.5394 9.63672 -0.286093
-17.5203 9.63332 -0.0860513
-17.5272 9.63036 0.113811
-17.5253 9.62142 0.313755
-17.5265 9.61266 0.514989
-17.5266 9.60412 0.717718
-17.5101 9.59991 0.919604
-17.5451 9.66427 -0.485491
-17.5444 9.65604 -0.285083
-17.5467 9.64709 -0.0851407
-17.5286 9.65163 0.114748
-17.5328 9.64218 0.314996
-17.5376 9.63146 0.516651
-17.5241 9.62647 0.717701
-17.5284 9.6157 0.922982
-17.5484 9.68504 -0.484284
-17.5419 9.6783 -0.28371
-17.546 9.6689 -0.0840543
-17.5335 9.67095 0.115755
-17.5297 9.66254 0.31543
-17.5502 9.64886 0.518464
-17.531 9.64532 0.71898
-17.5202 9.63954 0.921672
-17.563 9.70198 -0.484014
-17.5468 9.69763 -0.282703
-17.5529 9.68777 -0.0830538
-17.5519 9.68688 0.117194
-17.5288 9.68334 0.316042
-17.5531 9.66877 0.519274
-17.5339 9.66519 0.719718
-17.5172 9.65989 0.921272
-17.564 9.7223 -0.482711
-17.5594 9.71507 -0.282007
-17.548 9.70955 -0.0820072
-17.549 9.70819 0.117953
-17.549 9.69882 0.318101
-17.5463 9.69111 0.519075
-17.5387 9.68458 0.720725
-17.5238 9.67875 0.922616
-17.5571 9.74448 -0.480824
-17.5661 9.73398 -0.281077
-17.5527 9.72891 -0.0810019
-17.5479 9.72899 0.118771
-17.546 9.72012 0.318579
-17.5491 9.711 0.51988
-17.5434 9.70398 0.721731
-17.5266 9.6986 0.92328
-17.5579 9.76476 -0.479527
-17.5611 9.75571 -0.279687
-17.5652 9.74643 -0.0800258
-17.5467 9.74977 0.119586
-17.5565 9.73811 0.31998
-17.5576 9.72948 0.52129
-17.5442 9.72434 0.722193
-17.5427 9.71515 0.926324
-17.5722 9.78186 -0.479256
-17.5637 9.77556 -0.278608
-17.5659 9.76678 -0.0790077
-17.5532 9.76869 0.120651
-17.5477 9.76174 0.320104
-17.5641 9.74847 0.522497
-17.5507 9.7433 0.723468
-17.5473 9.73459 0.927328
-17.5787 9.80083 -0.478399
-17.5663 9.79541 -0.27753
-17.5705 9.7862 -0.0780046
-17.5733 9.78447 0.12216
-17.5541 9.78068 0.321238
-17.5648 9.76885 0.523096
-17.559 9.76183 0.725015
-17.5444 9.75684 0.927018
-17.5891 9.81895 -0.477833
-17.5747 9.81393 -0.276681
-17.5711 9.80654 -0.0769906
-17.5639 9.80609 0.122666
-17.5564 9.79958 0.322054
-17.5632 9.7887 0.523439
-17.5613 9.78078 0.725695
-17.5368 9.77704 0.925871
-17.5777 9.84091 -0.47572
-17.577 9.83284 -0.275655
-17.5596 9.82852 -0.0759951
-17.5624 9.82685 0.123472
-17.5724 9.81636 0.323856
-17.5618 9.8095 0.52383
-17.5695 9.79937 0.727241
-17.5452 9.79654 0.927601
-17.5859 9.85949 -0.475011
-17.5852 9.85143 -0.274806
-17.5796 9.84447 -0.0750409
-17.5609 9.84757 0.124276
-17.5728 9.83672 0.324588
-17.5835 9.82504 0.526662
-17.5603 9.82194 0.726331
-17.5532 9.81413 0.929232
-17.6 9.87686 -0.474735
-17.5739 9.87428 -0.27321
-17.58 9.86479 -0.0740326
-17.571 9.86572 0.125466
-17.5732 9.85706 0.325316
-17.5955 9.84287 0.528479
-17.5568 9.84314 0.726235
-17.5634 9.83329 0.931306
-17.5925 9.89884 -0.472872
-17.5878 9.89164 -0.272587
-17.5881 9.88343 -0.0730453
-17.5888 9.88226 0.126917
-17.5754 9.87697 0.326178
-17.5997 9.86245 0.52948
-17.5745 9.85964 0.729145
-17.5577 9.85394 0.93054
-17.6006 9.91751 -0.472164
-17.5881 9.91194 -0.271443
-17.5903 9.90335 -0.0720447
-17.591 9.90219 0.127848
-17.5854 9.89522 0.327578
-17.5824 9.88662 0.528228
-17.5825 9.87834 0.73069
-17.56 9.87482 0.93124
-17.589 9.94021 -0.470022
-17.6039 9.92902 -0.270892
-17.5924 9.92326 -0.071046
-17.5891 9.92294 0.128645
-17.5816 9.91638 0.328031
-17.5962 9.90411 0.530248
-17.5904 9.89707 0.732234
-17.5677 9.89252 0.93287
-17.6008 9.95812 -0.469603
-17.6138 9.94738 -0.270117
-17.6003 9.94199 -0.0700597
-17.5911 9.94286 0.129572
-17.5934 9.93429 0.329567
-17.5963 9.9245 0.530833
-17.5847 9.91867 0.731856
-17.5794 9.91042 0.935237
-17.6028 9.97802 -0.468469
-17.5942 9.97161 -0.268247
-17.6081 9.96075 -0.0690731
-17.5988 9.96063 0.130647
-17.5892 9.95445 0.329965
-17.6117 9.94074 0.533012
-17.5825 9.93844 0.731974
-17.5852 9.92959 0.936573
-17.6261 9.99278 -0.468951
-17.6038 9.989 -0.267524
-17.6079 9.98012 -0.0681243
-17.6105 9.97865 0.131906
-17.5852 9.97554 0.330408
-17.6116 9.96115 0.533595
-17.598 9.95566 0.734617
-17.5716 9.95268 0.934466
-17.624 10.0135 -0.467532
-17.6095 10.0082 -0.266607
-17.5999 10.002 -0.0671183
-17.6125 9.99961 0.13288
-17.5951 9.9949 0.331856
-17.6039 9.98406 0.533398
-17.5942 9.97778 0.734555
-17.5833 9.97166 0.936881
-17.6181 10.0359 -0.465784
-17.6272 10.0261 -0.266073
-17.596 10.024 -0.0660726
-17.6024 10.0218 0.133396
-17.6027 10.0137 0.333118
-17.6115 10.0029 0.534802
-17.6134 9.99437 0.737752
-17.5927 9.99011 0.938904
-17.6159 10.0565 -0.464373
-17.6309 10.0458 -0.265083
-17.6232 10.0391 -0.0651094
-17.6117 10.0393 0.134537
-17.6098 10.0306 0.334282
-17.6149 10.0216 0.535742
-17.5935 10.0175 0.735376
-17.6057 10.0059 0.941519
-17.6252 10.0741 -0.46386
-17.6225 10.0665 -0.263716
-17.6266 10.0578 -0.0641707
-17.6173 10.0586 0.135592
-17.6097 10.0519 0.335042
-17.6283 10.0394 0.537768
-17.6107 10.0345 0.738299
-17.6075 10.0269 0.942211
-17.6386 10.0919 -0.463577
-17.6319 10.0851 -0.262943
-17.6302 10.0774 -0.0631838
-17.6168 10.0789 0.13644
-17.6149 10.0702 0.336116
-17.6318 10.0591 0.538757
-17.6122 10.0545 0.739008
-17.5974 10.0491 0.940776
-17.6381 10.1123 -0.462311
-17.6295 10.1058 -0.261746
-17.6336 10.0971 -0.062198
-17.6281 10.0971 0.137699
-17.6184 10.0898 0.3371
-17.6274 10.0802 0.538911
-17.6215 10.0732 0.740825
-17.6008 10.0687 0.941759
-17.6356 10.1329 -0.460907
-17.6526 10.1221 -0.261465
-17.6291 10.1181 -0.0612115
-17.6236 10.1181 0.138405
-17.6337 10.1084 0.338966
-17.6405 10.0982 0.540939
-17.6229 10.0932 0.741532
-17.6156 10.0853 0.944772
-17.6331 10.1535 -0.459507
-17.65 10.1427 -0.26027
-17.6364 10.1371 -0.0602297
-17.6269 10.1378 0.139387
-17.6289 10.1285 0.339343
-17.6379 10.119 0.541298
-17.6222 10.1136 0.741959
-17.6171 10.1063 0.945457
-17.6363 10.1731 -0.458527
-17.6395 10.1647 -0.2588
-17.6436 10.1561 -0.0592478
-17.638 10.1561 0.140647
-17.6302 10.1485 0.340184
-17.6372 10.1393 0.541863
-17.6215 10.1339 0.742384
-17.6298 10.1233 0.948126
-17.6691 10.1881 -0.459632
-17.6466 10.1837 -0.257959
-17.6507 10.1751 -0.0582657
-17.6392 10.1762 0.141557
-17.6274 10.1691 0.340744
-17.6463 10.1581 0.543473
-17.6286 10.153 0.743921
-17.6135 10.1463 0.94563
-17.6624 10.2094 -0.457957
-17.6477 10.2037 -0.256911
-17.6519 10.1952 -0.0572862
-17.6439 10.1936 0.142508
-17.6361 10.1859 0.342044
-17.6471 10.1762 0.544146
-17.6509 10.1675 0.747593
-17.6279 10.1621 0.948598
-17.6592 10.228 -0.456661
-17.6683 10.2187 -0.256648
-17.6487 10.2138 -0.0564088
-17.645 10.2136 0.143415
-17.6569 10.2029 0.344288
-17.6521 10.1957 0.545336
-17.6481 10.1883 0.747736
-17.631 10.1819 0.949576
-17.6622 10.2477 -0.455684
-17.6713 10.2385 -0.255669
-17.6477 10.2341 -0.0554352
-17.6499 10.233 0.144462
-17.6541 10.2245 0.344893
-17.6648 10.2139 0.547368
-17.649 10.2084 0.748435
-17.6417 10.2004 0.951947
-17.6711 10.2666 -0.455121
-17.6623 10.26 -0.254284
-17.6625 10.2521 -0.0544491
-17.6587 10.2519 0.145653
-17.6451 10.246 0.345021
-17.6658 10.2341 0.548136
-17.6402 10.2299 0.747731
-17.6447 10.2212 0.952972
-17.672 10.2867 -0.454008
-17.6632 10.28 -0.253241
-17.6693 10.2713 -0.0534692
-17.6637 10.2724 0.146748
-17.652 10.2662 0.346326
-17.6746 10.254 0.549797
-17.6549 10.2489 0.750436
-17.6397 10.2421 0.95255
-17.6927 10.305 -0.454217
-17.6721 10.2999 -0.252421
-17.6643 10.2932 -0.052456
-17.6704 10.2916 0.147867
-17.6567 10.2857 0.347441
-17.6636 10.2758 0.549293
-17.6674 10.2673 0.752815
-17.6426 10.2629 0.953572
-17.6796 10.3269 -0.452149
-17.6768 10.3195 -0.251515
-17.6631 10.3135 -0.0514897
-17.6651 10.3125 0.148549
-17.6653 10.3046 0.34884
-17.6722 10.2948 0.550902
-17.6642 10.288 0.752947
-17.6587 10.2797 0.956945
-17.6783 10.3472 -0.450905
-17.6854 10.3385 -0.250743
-17.6736 10.3322 -0.0505065
-17.6697 10.332 0.149593
-17.6719 10.3239 0.350097
-17.6708 10.3152 0.551451
-17.6609 10.3086 0.753075
-17.6692 10.2995 0.959367
-17.6987 10.3648 -0.451158
-17.682 10.3591 -0.249573
-17.6802 10.3515 -0.0495291
-17.6762 10.3513 0.150709
-17.6665 10.3448 0.350495
-17.6872 10.3332 0.55391
-17.6634 10.3285 0.754045
-17.6697 10.3186 0.95994
-17.6992 10.3849 -0.450051
-17.6905 10.3781 -0.248801
-17.6926 10.3701 -0.0485399
-17.6827 10.3706 0.151826
-17.6769 10.3636 0.352037
-17.6817 10.3542 0.55403
-17.6796 10.3465 0.756989
-17.6606 10.341 0.958853
-17.7076 10.404 -0.449487
-17.6969 10.3975 -0.247963
-17.6851 10.3912 -0.0475914
-17.6908 10.3878 0.15292
-17.679 10.3815 0.352908
-17.68 10.3725 0.554477
-17.6877 10.3637 0.758709
-17.6548 10.3589 0.95827
-17.6939 10.4237 -0.447536
-17.699 10.4154 -0.247092
-17.6833 10.4095 -0.0467305
-17.6892 10.4081 0.153739
-17.6853 10.4008 0.354163
-17.6882 10.3917 0.556085
-17.6821 10.3846 0.758548
-17.663 10.378 0.96029
-17.7002 10.4431 -0.44684
-17.7053 10.4348 -0.246255
-17.6975 10.428 -0.045736
-17.6798 10.4314 0.154352
-17.6878 10.4227 0.355225
-17.6947 10.4131 0.557577
-17.6846 10.4065 0.759611
-17.6773 10.3994 0.963511
-17.7086 10.4643 -0.446181
-17.6998 10.4576 -0.244934
-17.7039 10.4494 -0.0446635
-17.6899 10.4503 0.155615
-17.686 10.443 0.3559
-17.685 10.4344 0.557257
-17.6888 10.4262 0.76086
-17.6853 10.4186 0.965533
-17.7167 10.4836 -0.445618
-17.7099 10.4766 -0.244227
-17.718 10.468 -0.0436651
-17.7118 10.4671 0.157284
-17.692 10.4615 0.357104
-17.6435 10.4581 0.553451
-17.6868 10.4455 0.761208
-17.6795 10.4385 0.965038
-17.7287 10.5015 -0.44537
-17.7139 10.4953 -0.243376
-17.7021 10.4889 -0.0428016
-17.7139 10.487 0.158249
-17.704 10.4804 0.358793
-17.6357 10.4789 0.553331
-17.7007 10.4642 0.763876
-17.6893 10.4575 0.967412
-17.7089 10.5236 -0.442942
-17.7199 10.5148 -0.242541
-17.7021 10.509 -0.0418471
-17.7019 10.5084 0.158678
-17.7059 10.4993 0.359707
-17.6396 10.4984 0.554497
-17.6987 10.4845 0.764269
-17.703 10.4752 0.970446
-17.7227 10.5424 -0.44278
-17.7279 10.5342 -0.241769
-17.716 10.5277 -0.0408483
-17.7019 10.5285 0.159561
-17.7159 10.5195 0.3613
-17.6395 10.5183 0.555232
-17.7026 10.5043 0.765515
-17.7089 10.4958 0.972163
-17.7286 10.5619 -0.442085
-17.7198 10.5551 -0.240494
-17.7299 10.5465 -0.0398469
-17.7216 10.5467 0.16121
-17.7037 10.5398 0.361187
-17.6671 10.5356 0.558987
-17.7064 10.5241 0.76676
-17.7146 10.5154 0.973833
-17.7364 10.5814 -0.441523
-17.7236 10.5749 -0.239599
-17.7257 10.5671 -0.0389086
-17.7194 10.5671 0.162014
-17.7055 10.5597 0.362144
-17.6649 10.5558 0.559506
-17.7121 10.5437 0.768289
-17.6968 10.5373 0.97125
-17.7402 10.6012 -0.440697
-17.7373 10.5938 -0.239015
-17.7215 10.5876 -0.0379738
-17.727 10.5845 0.163108
-17.7151 10.578 0.36364
-17.7139 10.5694 0.565557
-17.7137 10.5617 0.769151
-17.71 10.5532 0.97419
-17.7397 10.6194 -0.439704
-17.7408 10.6117 -0.238215
-17.725 10.6054 -0.0371061
-17.7306 10.6044 0.164142
-17.7305 10.5958 0.365579
-17.7394 10.5874 0.569115
-17.7252 10.5809 0.771538
-17.7137 10.5741 0.975549
-17.7374 10.6397 -0.438486
-17.7425 10.6317 -0.237259
-17.7425 10.6241 -0.0360859
-17.7223 10.6262 0.164754
-17.7282 10.6171 0.366287
-17.7628 10.6067 0.572511
-17.7209 10.6024 0.771682
-17.7231 10.5934 0.977925
-17.7549 10.6595 -0.438532
-17.7361 10.6533 -0.236012
-17.7482 10.6448 -0.0350657
-17.7358 10.6453 0.166177
-17.7258 10.6375 0.366945
-17.7485 10.6281 0.57173
-17.7165 10.6229 0.771776
-17.7246 10.6135 0.97888
-17.7465 10.6802 -0.436926
-17.7356 10.6734 -0.235
-17.7496 10.6649 -0.0341113
-17.7492 10.6644 0.167602
-17.7312 10.6572 0.368193
-17.738 10.6491 0.571379
-17.7317 10.6419 0.774737
-17.7182 10.6342 0.97841
-17.7539 10.6999 -0.436365
-17.737 10.6934 -0.23405
-17.765 10.684 -0.0330936
-17.7486 10.6847 0.168476
-17.7405 10.6767 0.369739
-17.7374 10.6693 0.572113
-17.7351 10.6618 0.775976
-17.7274 10.6536 0.980786
-17.7433 10.7206 -0.434636
-17.7424 10.7132 -0.233222
-17.7564 10.7048 -0.032188
-17.7359 10.7046 0.168823
-17.7478 10.6963 0.371136
-17.7426 10.6881 0.573453
-17.7422 10.6805 0.777743
-17.7286 10.6727 0.981688
-17.7595 10.7312 -0.2328
-17.7496 10.7243 -0.0313247
-17.753 10.7237 0.170408
-17.751 10.7163 0.372235
-17.7438 10.7082 0.574403
-17.7355 10.7011 0.777541
-17.7377 10.6933 0.984112
-17.7488 10.7445 -0.0303873
-17.7543 10.7448 0.171404
-17.7403 10.7381 0.372333
-17.749 10.7291 0.575837
-17.7447 10.7217 0.779689
-17.7428 10.7131 0.985775
-17.7847 10.7787 -0.434248
-17.7579 10.7726 -0.230739
-17.752 10.7655 -0.0293838
-17.7614 10.7646 0.172592
-17.7394 10.7583 0.373128
-17.7541 10.749 0.577223
-17.7497 10.7416 0.781214
-17.7381 10.7346 0.985697
-17.7898 10.7987 -0.433557
-17.771 10.7921 -0.230148
-17.7491 10.7858 -0.0284613
-17.7623 10.7837 0.17349
-17.7563 10.7765 0.375227
-17.7511 10.7683 0.577682
-17.7546 10.7605 0.78269
-17.739 10.7527 0.986548
-17.7589 10.8193 -0.430605
-17.7679 10.8114 -0.229133
-17.76 10.8043 -0.0275103
-17.7673 10.8036 0.174597
-17.7652 10.7963 0.376773
-17.756 10.7882 0.579066
-17.7634 10.7803 0.784793
-17.7478 10.7734 0.988971
-17.7877 10.8382 -0.431455
-17.7669 10.8316 -0.228132
-17.7689 10.8241 -0.0265219
-17.7701 10.8227 0.175574
-17.778 10.8149 0.378576
-17.7608 10.8072 0.580403
-17.7564 10.7998 0.784532
-17.7584 10.7911 0.991612
-17.8165 10.8563 -0.432345
-17.7577 10.8511 -0.226948
-17.7789 10.8425 0.176843
-17.7669 10.8356 0.378612
-17.7735 10.8268 0.58267
-17.7592 10.8199 0.785764
-17.7632 10.8121 0.99332
-17.7933 10.8774 -0.429871
-17.7685 10.8708 -0.226299
-17.8065 10.862 -0.0244678
-17.7797 10.8637 0.177832
-17.7677 10.8567 0.3796
-17.7763 10.8479 0.58388
-17.7619 10.841 0.787042
-17.7561 10.8326 0.992825
-17.7781 10.899 -0.427868
-17.7752 10.8917 -0.225486
-17.8032 10.8834 -0.0235012
-17.7804 10.8839 0.178772
-17.7763 10.8766 0.381146
-17.773 10.8683 0.584378
-17.7764 10.8606 0.790016
-17.7685 10.8523 0.995921
-17.7668 10.9195 -0.426171
-17.7919 10.9114 -0.225005
-17.8039 10.9037 -0.0225591
-17.785 10.9029 0.179829
-17.7809 10.8957 0.382343
-17.7795 10.8873 0.585935
-17.779 10.8798 0.7912
-17.773 10.8724 0.99758
-17.8173 10.9374 -0.428443
-17.7924 10.9306 -0.224114
-17.8244 10.9224 -0.0215343
-17.7895 10.923 0.180932
-17.7874 10.9157 0.383738
-17.784 10.9074 0.587318
-17.7696 10.9003 0.790682
-17.7794 10.8925 0.999599
-17.7879 10.9583 -0.425613
-17.8049 10.9505 -0.223515
-17.7849 10.9436 -0.0208617
-17.802 10.943 0.182369
-17.7819 10.9361 0.384216
-17.7964 10.9273 0.589589
-17.7839 10.9202 0.793658
-17.7799 10.9127 1.00054
-17.7903 10.9784 -0.424806
-17.7934 10.971 -0.222243
-17.8094 10.9633 -0.0197624
-17.7984 10.9633 0.183138
-17.7882 10.9562 0.38561
-17.7968 10.9476 0.590526
-17.7922 10.9402 0.795761
-17.7803 10.933 1.00147
-17.8166 10.9982 -0.425504
-17.8257 10.9907 -0.222201
-17.8257 10.9834 -0.0187135
-17.8067 10.9834 0.184408
-17.7905 10.9754 0.38665
-17.8011 10.9678 0.591907
-17.7925 10.9605 0.796697
-17.7786 10.9523 1.002
-17.797 11.0187 -0.42332
-17.854 11.0107 -0.222039
-17.826 11.0037 -0.0177767
-17.803 11.0038 0.185173
-17.7988 10.9965 0.388244
-17.8034 10.9881 0.593065
-17.8007 10.9807 0.7988
-17.7946 10.9733 1.00587
-17.8072 11.0388 -0.423014
-17.8302 11.0313 -0.22044
-17.8142 11.0241 -0.0169303
-17.8072 11.024 0.186274
-17.803 11.0157 0.389437
-17.8135 11.0083 0.595116
-17.785 11.0012 0.79739
-17.7928 10.9936 1.00644
-17.8034 11.059 -0.421836
-17.8304 11.0516 -0.219507
-17.8384 11.0443 -0.015818
-17.8213 11.0442 0.187799
-17.7991 11.0361 0.390058
-17.8255 11.0285 0.597393
-17.8009 11.0213 0.800665
-17.8086 11.0137 1.01027
-17.8174 11.0793 -0.421778
-17.8345 11.0719 -0.218684
-17.8585 11.0646 -0.0147306
-17.8253 11.0625 0.188807
-17.8071 11.0553 0.391559
-17.8216 11.0469 0.597784
-17.8109 11.0395 0.802969
-17.8027 11.0311 1.00997
-17.8414 11.0976 -0.422429
-17.8145 11.0902 -0.217306
-17.8385 11.083 -0.014046
-17.8273 11.0828 0.189822
-17.8111 11.0746 0.392751
-17.8136 11.0672 0.597816
-17.8089 11.0599 0.803604
-17.8027 11.0524 1.01095
-17.8414 11.1179 -0.4215
-17.8705 11.1108 -0.217886
-17.8984 11.1036 -0.012636
-17.8232 11.1032 0.190579
-17.823 11.0949 0.39461
-17.8214 11.0876 0.599643
-17.8246 11.0802 0.806885
-17.8105 11.0717 1.01328
-17.8692 11.1385 -0.422297
-17.8543 11.1311 -0.216526
-17.9383 11.1245 -0.0113718
-17.8251 11.1235 0.191591
-17.8228 11.1153 0.395537
-17.8332 11.108 0.601922
-17.8185 11.1006 0.806929
-17.8201 11.0921 1.01602
-17.885 11.1592 -0.422349
-17.8701 11.1517 -0.216022
-17.8861 11.1446 -0.0108622
-17.8428 11.1451 0.19334
-17.8186 11.1366 0.396195
-17.825 11.1294 0.601992
-17.8182 11.122 0.807901
-17.8277 11.1136 1.01845
-17.8288 11.1798 -0.417942
-17.8699 11.1732 -0.215047
-17.9098 11.1666 -0.00967988
-17.8345 11.1654 0.193917
-17.8262 11.157 0.397743
-17.8346 11.1499 0.604046
-17.8317 11.1425 0.81089
-17.8176 11.1339 1.01755
-17.9123 11.2018 -0.422154
-17.8376 11.1931 -0.21328
-17.8375 11.1859 -0.00936816
-17.8422 11.1849 0.195142
-17.8358 11.1776 0.399448
-17.8382 11.1693 0.605375
-17.8413 11.1621 0.813244
-17.8152 11.1533 1.01807
-17.88 11.2206 -0.419319
-17.8931 11.2137 -0.213867
-17.8851 11.2063 -0.00807138
-17.8477 11.2054 0.196326
-17.8493 11.1983 0.401469
-17.8398 11.1898 0.606524
-17.8467 11.1826 0.815054
-17.8324 11.175 1.02231
-17.8756 11.241 -0.418152
-17.8687 11.2336 -0.212318
-17.8526 11.226 -0.00743126
-17.8452 11.2268 0.197205
-17.8627 11.2201 0.403538
-17.8611 11.2118 0.609986
-17.8343 11.2039 0.814247
-17.8437 11.1957 1.02542
-17.8526 11.2475 0.198475
-17.8402 11.24 0.402725
-17.8565 11.2322 0.610454
-17.8456 11.2246 0.816944
-17.8431 11.2172 1.02639
-17.8983 11.2838 -0.417715
-17.8714 11.2685 -0.0053627
-17.8639 11.2673 0.199878
-17.8495 11.2597 0.404386
-17.8698 11.252 0.61292
-17.8607 11.2445 0.820189
-17.8385 11.2355 1.02648
-17.8997 11.3034 -0.41696
-17.8688 11.295 -0.20961
-17.8747 11.2881 -0.00445208
-17.8692 11.288 0.201061
-17.8548 11.2803 0.405777
-17.8551 11.2721 0.612246
-17.8659 11.2652 0.821999
-17.8436 11.2572 1.02854
-17.8989 11.3239 -0.41604
-17.8661 11.3154 -0.208643
-17.872 11.3085 -0.0035536
-17.8684 11.3074 0.201932
-17.864 11.3001 0.40744
-17.8722 11.2922 0.615168
-17.8671 11.2848 0.823169
-17.8566 11.2761 1.03193
-17.8961 11.3433 -0.415047
-17.8773 11.3354 -0.208077
-17.8752 11.3282 -0.00264507
-17.8696 11.328 0.202937
-17.8751 11.3211 0.409308
-17.8733 11.3128 0.616314
-17.8662 11.3053 0.824085
-17.8714 11.2982 1.03582
-17.8873 11.3635 -0.413652
-17.8804 11.3561 -0.207263
-17.8842 11.3491 -0.00163213
-17.8865 11.3514 0.204748
-17.87 11.3435 0.409996
-17.8921 11.3363 0.619607
-17.8711 11.3282 0.825985
-17.8684 11.3197 1.03642
-17.8962 11.3866 -0.413245
-17.8873 11.379 -0.206458
-17.9111 11.3731 -0.000345759
-17.8795 11.3717 0.205392
-17.865 11.3639 0.410589
-17.8951 11.3571 0.620981
-17.878 11.3491 0.828091
-17.8674 11.3403 1.03733
-17.8373 11.4039 -0.408879
-17.8503 11.3976 -0.204658
-17.8481 11.3904 -6.24657e-05
-17.8446 11.3884 0.204678
-17.8501 11.3816 0.410288
-17.8365 11.3728 0.615155
-17.8513 11.3664 0.825033
-17.8565 11.3594 1.03636
-17.7526 11.4173 -0.403079
-17.7774 11.4118 -0.202077
-17.7792 11.405 4.82723e-05
-17.7437 11.4032 0.201055
-17.7713 11.3978 0.404947
-17.754 11.3889 0.606646
-17.7494 11.3816 0.810703
-17.6878 11.4413 -0.598613
-17.7729 11.3757 1.02183
-17.6638 11.4319 -0.396978
-17.7104 11.428 -0.199576
-17.7002 11.4205 0.000121679
-17.6547 11.418 0.197944
-17.6885 11.4132 0.399258
-17.6893 11.4054 0.600179
-17.6751 11.3976 0.800528
-17.6091 11.4559 -0.590417
-17.6892 11.3914 1.00728
-17.5948 11.4472 -0.392089
-17.6054 11.4412 -0.196177
-17.6231 11.4356 0.000190422
-17.5956 11.4341 0.196172
-17.5917 11.4271 0.392418
-17.6167 11.4209 0.592769
-17.5988 11.4131 0.790028
-17.5304 11.4699 -0.582247
-17.6094 11.4068 0.993429
-17.5318 11.4624 -0.387575
-17.5403 11.4564 -0.193774
-17.556 11.4509 0.000341952
-17.5306 11.4484 0.194063
-17.5209 11.4402 0.387555
-17.548 11.4353 0.585753
-17.5324 11.4276 0.780959
-17.4597 11.4831 -0.574892
-17.5258 11.4194 0.978734
-17.4649 11.476 -0.38289
-17.4832 11.4708 -0.191626
-17.4769 11.4638 0.000297908
-17.4595 11.4628 0.191701
-17.4538 11.456 0.383119
-17.4693 11.4495 0.577605
-17.4817 11.4437 0.774311
-17.4027 11.4978 -0.568826
-17.4714 11.4363 0.96967
-17.3799 11.4887 -0.377128
-17.4061 11.4842 -0.18898
-17.4077 11.478 0.000381783
-17.3862 11.4785 0.189305
-17.3848 11.4711 0.378499
-17.4123 11.4666 0.572055
-17.4091 11.4598 0.764425
-17.3416 11.5137 -0.562325
-17.3972 11.4524 0.956939
-17.3246 11.505 -0.373067
-17.3487 11.5006 -0.186749
-17.3443 11.4939 0.000592209
-17.321 11.4924 0.187172
-17.3237 11.4854 0.374462
-17.3355 11.4799 0.564089
-17.3288 11.473 0.75323
-17.2727 11.5266 -0.555181
-17.3271 11.4664 0.944837
-17.2714 11.5193 -0.369223
-17.2775 11.5135 -0.184291
-17.285 11.5079 0.000744812
-17.2619 11.5045 0.185215
-17.2487 11.4972 0.369229
-17.2886 11.4931 0.559493
-17.2643 11.4849 0.744335
-17.196 11.5365 -0.547395
-17.265 11.4777 0.934071
-17.1944 11.5293 -0.36408
-17.2083 11.5243 -0.181982
-17.2199 11.5192 0.000729155
-17.2046 11.5182 0.183413
-17.1896 11.5099 0.365274
-17.2236 11.5065 0.552875
-17.1898 11.4975 0.733995
-17.1429 11.5498 -0.541781
-17.1968 11.4918 0.922337
-17.1412 11.5427 -0.360274
-17.149 11.5373 -0.179847
-17.1466 11.5311 0.00067915
-17.1433 11.5311 0.181406
-17.1463 11.5244 0.362642
-17.1468 11.5184 0.544841
-17.1429 11.5119 0.727852
-17.0818 11.5621 -0.535443
-17.1345 11.5041 0.911612
-17.0839 11.5554 -0.356254
-17.0976 11.5507 -0.177916
-17.1032 11.5453 0.0009613
-17.0681 11.5424 0.178723
-17.0791 11.5365 0.358038
-17.0858 11.5311 0.538644
-17.0802 11.5246 0.719278
-17.0326 11.5751 -0.530235
-17.0839 11.5178 0.903129
-17.0266 11.5677 -0.352253
-17.079 11.5112 1.08774
-17.0403 11.5632 -0.175864
-17.0537 11.5585 0.00115692
-17.0086 11.5555 0.176806
-17.0317 11.5509 0.355085
-17.0306 11.5449 0.533164
-17.0134 11.5373 0.710118
-16.9694 11.5873 -0.523712
-17.0332 11.5322 0.894668
-16.9613 11.5797 -0.347772
-17.0169 11.5246 1.07493
-16.9688 11.5747 -0.173475
-16.9823 11.5702 0.00110635
-16.9592 11.5683 0.175301
-16.9586 11.5616 0.349949
-16.9715 11.557 0.527161
-16.9506 11.5491 0.701503
-16.9103 11.5985 -0.517617
-16.9707 11.5442 0.883925
-16.9199 11.5929 -0.344728
-16.9569 11.5368 1.06251
-16.9194 11.5871 -0.171644
-16.9308 11.5825 0.00124113
-16.9158 11.5805 0.174027
-16.8953 11.5727 0.345609
-16.9125 11.5678 0.521102
-16.9116 11.5619 0.696463
-16.8611 11.6096 -0.512498
-16.9064 11.5547 0.872754
-16.8685 11.6038 -0.341162
-16.9085 11.5489 1.05267
-16.866 11.5979 -0.169775
-16.8774 11.5935 0.00129758
-16.8504 11.591 0.171734
-16.8439 11.5847 0.342236
-16.8514 11.5789 0.514827
-16.8606 11.5741 0.689629
-16.8197 11.622 -0.508093
-16.8458 11.5668 0.862378
-16.8012 11.6135 -0.336661
-16.8582 11.5613 1.04241
-16.8145 11.6094 -0.167931
-16.804 11.6027 0.0011217
-16.7889 11.6015 0.16961
-16.7985 11.5969 0.33934
-16.8021 11.5909 0.509938
-16.8017 11.5852 0.681566
-16.7486 11.6308 -0.500948
-16.7932 11.5777 0.853399
-16.7399 11.6234 -0.332524
-16.7922 11.5718 1.02861
-16.7689 11.6212 -0.166237
-16.7663 11.6155 0.00138181
-16.7454 11.6135 0.168324
-16.7411 11.6075 0.335439
-16.741 11.6012 0.503626
-16.7447 11.596 0.673787
-16.7032 11.6421 -0.496209
-16.7463 11.5905 0.845592
-16.7063 11.6362 -0.329997
-16.7437 11.5837 1.01875
-16.6935 11.6293 -0.163898
-16.7247 11.6275 0.00157787
-16.6819 11.623 0.166068
-16.6897 11.6184 0.332016
-16.7114 11.6146 0.50105
-16.6976 11.6076 0.66751
-16.644 11.6515 -0.490203
-16.6976 11.6011 0.837325
-16.6607 11.6473 -0.326802
-16.6972 11.5954 1.00932
-16.6579 11.6416 -0.162457
