# .PCD v0.7
VERSION 0.7
FIELDS x y z
SIZE 4 4 4
TYPE F F F
COUNT 1 1 1
WIDTH 101
HEIGHT 1
VIEWPOINT 0 0 0 0 0 0 1
POINTS 101
DATA ascii
8.26802 -10.3438 0.230834
8.27234 -10.353 0.699769
8.22169 -10.3263 -0.236267
8.23848 -10.382 0.231043
8.25502 -10.407 0.701431
8.19954 -10.3739 -0.236694
8.20878 -10.4201 0.231253
8.22824 -10.453 0.702473
8.18569 -10.4325 -0.237373
8.18864 -10.4709 0.231732
8.2031 -10.4974 0.703515
8.16582 -10.5185 0.232143
8.17412 -10.5371 0.704247
8.14157 -10.5645 0.232522
8.14497 -10.5767 0.704979
8.12784 -10.5895 -0.238976
8.12189 -10.6168 0.233035
8.12283 -10.6258 0.706331
8.09726 -10.6274 -0.239185
8.08881 -10.6515 0.233177
8.09805 -10.6717 0.707477
8.05938 -10.6555 -0.239177
8.05988 -10.6879 0.233387
8.07259 -10.7129 0.708416
8.07069 -10.7466 -0.240614
8.04306 -10.7449 0.234001
8.03913 -10.7474 0.708838
8.03003 -10.7714 -0.240534
8.01183 -10.7826 0.234212
8.01846 -10.7996 0.710398
7.98226 -10.7864 -0.240236
7.98511 -10.8267 0.234557
8.00335 -10.8599 0.712475
7.93915 -10.8077 -0.240084
7.95469 -10.8658 0.234801
7.97513 -10.9024 0.713415
7.9357 -10.9212 0.235382
7.94902 -10.948 0.714561
7.91407 -10.9362 -0.241692
7.8991 -10.952 0.235458
7.88698 -10.943 0.712501
7.87166 -10.9588 -0.241575
7.8084 -10.9058 0.233951
7.78379 -10.8788 0.706715
7.77192 -10.8993 -0.239652
7.71206 -10.8463 0.232206
7.69527 -10.8262 0.70186
7.67462 -10.8379 -0.23773
7.61769 -10.7925 0.230564
7.59914 -10.7738 0.696799
7.57817 -10.7806 -0.23588
7.52796 -10.7402 0.228988
7.50921 -10.7168 0.691737
7.49439 -10.7284 -0.697571
7.49654 -10.7396 -0.234428
7.43564 -10.6871 0.227379
7.4103 -10.6538 0.686158
7.41127 -10.6884 -0.693328
7.39202 -10.668 -0.232289
7.34826 -10.64 0.225905
7.32234 -10.6097 0.681718
7.3196 -10.6347 -0.688237
7.30596 -10.6224 -0.230727
7.2535 -10.5809 0.224194
7.23857 -10.5626 0.677277
7.23395 -10.5887 -0.683676
7.21587 -10.5697 -0.229022
7.16402 -10.5325 0.222687
7.15365 -10.5208 0.673043
7.1391 -10.5319 -0.678373
7.13321 -10.531 -0.227604
7.07355 -10.4773 0.221078
7.0644 -10.4674 0.668189
7.05102 -10.48 -0.673495
7.0484 -10.484 -0.226043
7.00153 -10.441 0.219906
6.98152 -10.4143 0.66354
6.97038 -10.4302 -0.668934
6.96334 -10.4274 -0.224339
6.91628 -10.3916 0.218432
6.89752 -10.3666 0.6591
6.89296 -10.3925 -0.665008
6.88372 -10.3862 -0.222922
6.83288 -10.3479 0.217059
6.81026 -10.3208 0.65466
6.80647 -10.3438 -0.660341
6.78965 -10.3255 -0.221071
6.74524 -10.2926 0.215483
6.72928 -10.2756 0.650426
6.72012 -10.29 -0.655463
6.71516 -10.2902 -0.219799
6.66742 -10.2474 0.214143
6.65373 -10.2338 0.646502
6.63711 -10.2363 -0.65069
6.63855 -10.2465 -0.218383
6.59136 -10.208 0.212905
6.56499 -10.1741 0.64144
6.55698 -10.1901 -0.646341
6.55303 -10.1917 -0.216714
6.51459 -10.1665 0.211632
6.48947 -10.1343 0.63762
