# .PCD v0.7
VERSION 0.7
FIELDS x y z
SIZE 4 4 4
TYPE F F F
COUNT 1 1 1
WIDTH 80
HEIGHT 1
VIEWPOINT 0 0 0 0 0 0 1
POINTS 80
DATA ascii
2.77084 6.28201 -0.34342
2.79641 6.27911 -0.343853
2.8827 6.30673 -0.583488
2.92507 6.38475 -0.113122
2.87914 6.24449 -0.578456
2.90126 6.28519 -0.346519
2.95176 6.38536 -0.113345
2.94776 6.35178 0.124835
2.90104 6.23623 -0.578644
2.92158 6.27326 -0.346429
2.96116 6.34983 -0.112875
2.95768 6.32039 0.124399
2.9184 6.22123 -0.578136
2.93034 6.2402 -0.345086
2.95096 6.27703 -0.111676
2.97461 6.30108 0.124208
2.93761 6.20746 -0.577802
2.93997 6.20664 -0.343743
2.95542 6.2326 -0.111032
2.98879 6.27633 0.123912
2.95676 6.19362 -0.577468
2.95116 6.17667 -0.342609
2.97376 6.2169 -0.110943
3.00462 6.25514 0.123687
2.98206 6.19222 -0.578353
2.96662 6.15563 -0.341996
2.99025 6.19756 -0.110784
3.02285 6.2416 0.123603
2.98388 6.15809 0.354378
3.00544 6.18945 -0.579063
2.98184 6.13687 -0.341488
2.99842 6.16441 -0.110347
3.03038 6.20426 0.123061
2.99819 6.1375 0.353735
3.01551 6.15762 -0.576988
3.0007 6.12289 -0.341293
3.02008 6.15573 -0.110396
3.04209 6.17817 0.122731
3.01601 6.12399 0.353512
3.02344 6.12454 -0.574739
3.01756 6.1076 -0.340994
3.03432 6.13503 -0.110202
3.05742 6.15687 0.122506
3.03481 6.10991 0.353288
3.0304 6.08741 -0.572142
3.0363 6.09352 -0.340799
3.05498 6.12443 -0.110216
3.08275 6.15508 0.122667
3.05354 6.09577 0.353064
3.04997 6.07506 -0.571982
3.05865 6.08646 -0.341022
3.07929 6.12086 -0.110369
3.11087 6.1585 0.122933
3.08146 6.09927 0.353889
3.06027 6.04499 -0.570082
3.08007 6.07755 -0.341141
3.0999 6.11011 -0.110384
3.13172 6.14532 0.122883
3.1301 6.13691 0.35681
3.07419 6.01967 -0.568704
3.10901 6.08039 -0.341992
3.1271 6.10935 -0.110607
3.1496 6.12909 0.122763
3.09725 6.01421 -0.56924
3.12947 6.06953 -0.342006
3.16272 6.12667 -0.111176
3.16723 6.11743 0.122715
3.14182 6.05365 -0.574128
3.16203 6.0861 -0.343586
3.20021 6.15197 -0.111883
3.19162 6.11341 0.122841
3.20855 6.11794 -0.111447
3.20941 6.09469 0.122685
3.21867 6.08511 -0.111046
3.2398 6.0802 -0.345301
3.2459 6.08614 -0.111303
3.27144 6.09416 -0.582718
3.25832 6.06539 -0.345107
3.28806 6.07578 -0.582036
3.31829 6.08166 -0.583792
